# Geomagic Studio
# New Model
-5.5479045 -13.6882089 -28.6325278
-1.5739796 -14.7449566 -28.3953338
2.5299744 -14.1561425 -28.3922561
-1.5874597 -12.2339614 -24.1343650
5.6851089 -12.3929599 -28.7758318
-8.6874187 -11.3989759 -29.3574255
-4.4633117 -11.9208648 -24.8801519
2.0053570 -11.3815214 -23.7996115
4.8801175 -10.6402516 -25.0755298
-3.5029432 -9.9847762 -22.2479571
-10.1545899 -8.9149238 -29.9842631
-7.6217732 -8.9455242 -24.5288351
3.8552953 -8.8889118 -22.5090643
8.6411547 -8.5205411 -29.7549946
-9.4653064 -7.3574155 -26.3631437
-7.9843110 -6.2346257 -23.3418053
-0.2936797 -6.7736562 -20.6349378
7.6572214 -7.2107267 -26.0441362
6.4747157 -5.3794561 -23.4850393
9.5587932 -5.3686356 -30.8535978
-11.3854869 -4.4613349 -31.4563800
8.3195007 -4.1787252 -26.5001104
-10.0857534 -2.8414520 -26.9597401
-5.1750051 -2.7869930 -21.7989491
-2.9551462 -2.5268836 -12.6713996
-10.4588815 -1.1249026 -32.1911388
-8.4305461 -0.4928787 -24.9357288
-4.0704917 -1.4431018 -13.0257667
-3.3540728 -1.5479241 -10.4834870
-2.9710726 -1.2191867 -7.6560688
1.7014680 -1.6228229 -13.2258566
1.6304626 -0.3589167 -8.4096309
3.6272942 -1.4451218 -22.0046467
8.8559685 -1.1347504 -31.7825792
-9.5308277 0.1241498 -28.4824633
-4.3904696 0.1990868 -13.5599746
-4.0750810 -0.3140992 -8.6504561
-1.3005646 0.1525881 -5.2765838
0.0288561 0.5116134 -5.3579817
2.1047040 -0.2036418 -13.5186763
1.9106014 -0.0390941 -10.7884055
7.5797103 -0.2026889 -27.5211930
-4.4523421 1.5482811 -8.6459870
-3.5495138 1.3121097 -22.8695138
-3.9790299 1.8390850 -13.2481243
-4.2561949 1.2341403 -11.8942901
-3.1303976 1.5641923 -5.6782349
1.0418994 1.5454302 -22.8568567
1.6315235 1.8363197 -13.3624642
2.0222253 1.2390491 -8.0079299
6.0532881 2.5680176 -28.6045628
5.4667371 1.4666390 -25.1067782
7.3027009 1.4913341 -32.4475083
-7.8878311 2.7497688 -33.3080143
-6.8237663 3.1115164 -27.8971957
-4.0273328 3.0168174 -8.9640191
-2.5255442 2.9299436 -14.0048180
-2.0712132 3.6331766 -11.8911710
-2.5513732 3.7505125 -6.2592884
-1.0289809 3.2895648 -14.1495007
0.5857646 2.6758232 -14.4318041
0.9001837 2.9916036 -11.8998446
0.9631191 2.5846065 -5.9098257
1.5238050 3.1969502 -8.5519821
-4.7578984 4.5587183 -33.4976405
-4.5462987 4.6238127 -29.2870781
-4.4135016 3.9898849 -26.1416672
-2.6419611 4.2238676 -9.1853102
-1.1372990 4.4176041 -9.9339150
-0.5066873 4.1383349 -6.3364780
0.5372671 5.1960093 -33.6916703
0.1061286 5.3629334 -29.5190889
0.1133859 4.7486821 -26.3614186
0.4590396 4.2222025 -8.9393874
3.2815693 4.5440111 -33.2563658
2.7374287 4.4693727 -28.1908894
