# Geomagic Studio
# New Model
-1.5710693 -14.7416155 -28.4002147
2.5323548 -14.1528152 -28.3953273
5.6861506 -12.3898254 -28.7771994
-5.5454789 -13.6876109 -28.6328704
-1.5859996 -12.2340898 -24.1354600
-4.4618183 -11.9217368 -24.8805012
2.0074343 -11.3812075 -23.8014421
4.8815984 -10.6390417 -25.0772966
8.6407639 -8.5168684 -29.7582210
-8.6851298 -11.3993277 -29.3591471
-3.5020127 -9.9853219 -22.2477808
3.8562785 -8.8878345 -22.5113152
7.6576329 -7.2071647 -26.0470226
9.5561717 -5.3638206 -30.8567845
-10.1517161 -8.9145052 -29.9847465
-7.6209651 -8.9457746 -24.5274513
-0.2921945 -6.7723288 -20.6355779
6.4746581 -5.3776923 -23.4879685
8.3194253 -4.1752273 -26.5021074
-9.4636455 -7.3576177 -26.3632050
-7.9834181 -6.2358936 -23.3405298
8.8545622 -1.1311681 -31.7849813
-11.3795658 -4.4639148 -31.4586926
1.4459583 -1.8808438 -12.8133294
3.6258466 -1.4461007 -22.0043326
7.5797133 -0.1987175 -27.5209905
-10.0862949 -2.8435163 -26.9591164
-5.1755199 -2.7866971 -21.7984637
-3.2139332 -2.3661776 -12.6954570
-3.5701967 -1.2673274 -10.3734018
-3.2052941 -1.0698533 -7.5374861
2.1071285 -0.4421708 -13.1589449
1.8617520 -0.2953122 -10.6563290
1.4137101 -0.6388398 -8.3235013
-10.4542138 -1.1267837 -32.1934822
-4.1674426 -1.0943232 -13.0686834
-4.1668919 0.0530902 -8.5560883
-1.6164178 0.2541707 -5.3244649
-0.2503277 0.4272042 -5.3603110
2.0866069 0.9929941 -8.0401150
5.4672362 1.4696247 -25.1062763
6.0519662 2.5723705 -28.6034118
7.3024953 1.4982453 -32.4462058
-9.5305168 0.1228824 -28.4821401
-8.4298879 -0.4951190 -24.9356058
-4.3626426 0.6286301 -13.4684590
-4.1740694 1.5874517 -11.6939372
-3.5497301 1.3120229 -22.8701407
1.0425929 1.5448727 -22.8563891
0.9357548 2.5800549 -14.0555413
1.8028424 1.6055103 -12.9433857
1.2243329 2.6990646 -11.9528062
1.7488597 2.8208963 -8.5153928
1.0030497 2.3307393 -5.8634739
-4.4485762 1.9096193 -8.4546241
-3.7595101 2.1471235 -13.0310569
-3.2033804 1.9179950 -5.7907415
-2.3615012 3.0773447 -14.0845750
-0.7861193 3.2130566 -14.1666991
0.8186271 4.0619144 -8.9373439
2.7349283 4.4712612 -28.1891816
3.2799479 4.5470334 -33.2561927
-7.8903538 2.7588173 -33.3043901
-6.8259477 3.1144261 -27.8953384
-4.7600992 4.5655407 -33.4937801
-4.5473258 4.6266211 -29.2849495
-4.4150951 3.9912166 -26.1391783
-3.8023383 3.3097968 -8.7455793
-1.8393555 3.7328352 -11.8364862
-2.3717973 4.4507758 -9.0206002
-2.3007804 4.0013981 -6.3398352
-0.8634735 4.3831114 -9.8129482
-0.2172804 4.0842495 -6.3396915
0.1116919 4.7496814 -26.3592929
0.5352533 5.1978955 -33.6913544
0.1059504 5.3653340 -29.5171644
