# Geomagic Studio
# New Model
-5.5517850 -13.6810854 -28.6428980
-1.5786799 -14.7403292 -28.4055729
2.5252184 -14.1542784 -28.4019314
-8.6910722 -11.3936086 -29.3625657
-4.4673007 -11.9182862 -24.8878297
-1.5913092 -12.2327432 -24.1437239
2.0015750 -11.3833103 -23.8077899
5.6804871 -12.3924250 -28.7839525
-10.1570174 -8.9085771 -29.9883784
-7.6255840 -8.9425619 -24.5309666
-3.5054065 -9.9846374 -22.2546293
4.8760360 -10.6413000 -25.0844690
-9.4681021 -7.3531067 -26.3655586
3.8525791 -8.8912318 -22.5158102
-11.3837193 -4.4561901 -31.4607720
-7.9871444 -6.2324571 -23.3431821
-0.2921561 -6.7704649 -20.6345217
8.6366704 -8.5191287 -29.7618801
7.6522659 -7.2112308 -26.0529029
-10.0865174 -2.8385825 -26.9608555
-5.1746969 -2.7879200 -21.7993541
6.4711725 -5.3816540 -23.4910606
9.5540525 -5.3670850 -30.8581996
-10.4585507 -1.1170078 -32.1928678
-3.0639017 -2.5147998 -12.9314018
8.3166023 -4.1790553 -26.5047475
-9.5301940 0.1282930 -28.4830443
-8.4285669 -0.4908667 -24.9370288
-4.1581016 -1.3285625 -13.2694354
-3.4571484 -1.4699081 -10.6130474
-4.1652001 -0.1374750 -8.6646841
-3.0685227 -1.1616652 -7.6337153
1.6252882 -1.7443358 -13.0383971
3.6260234 -1.4487600 -22.0056483
-4.3791416 0.3234254 -13.6885611
-3.5499966 1.3137665 -22.8697046
-4.2083132 1.4926485 -11.5462569
-1.6171355 0.1353120 -5.3205731
2.1292709 -0.2676617 -13.3807141
1.9153079 -0.1750452 -10.8209312
1.5973660 -0.5308931 -8.6485710
8.8489290 -1.1382849 -31.7870576
7.5755508 -0.2052953 -27.5227255
-7.8926717 2.7676810 -33.3008679
-6.8258078 3.1199387 -27.8931231
-4.4407798 1.7044965 -8.4656845
-3.8629490 2.0250643 -13.3836018
-3.2719405 1.7711393 -5.7751929
1.0418340 1.5450069 -22.8561728
0.3746303 0.8038164 -5.4865375
1.8537262 1.6440080 -13.1215859
2.0682057 1.0717232 -8.2512878
5.4649306 1.4640162 -25.1068425
-4.7602676 4.5745998 -33.4891694
-4.5469404 4.6325345 -29.2822738
-4.4143270 3.9947748 -26.1374220
-3.9237572 3.2117640 -8.8143115
-2.4163544 2.9483096 -14.2528271
-1.9094247 3.6649176 -11.9713715
-2.4293395 3.9017095 -6.3261825
-0.8252594 3.2549075 -14.3592665
0.8548144 2.5365432 -14.2043147
1.1742368 2.6755593 -12.1697473
0.7497395 3.0886743 -6.0895553
1.8093149 2.8260269 -8.6807659
6.0511084 2.5672753 -28.6038217
7.2999066 1.4909736 -32.4459744
-2.5207717 4.3076981 -9.1147922
0.5365787 5.2042031 -33.6885103
0.1075900 5.3664913 -29.5152285
0.1126100 4.7504627 -26.3579562
-0.8992201 4.4480359 -9.8597232
-0.0373379 3.8958825 -6.3089165
0.7425978 3.9722397 -9.0687074
3.2815323 4.5498375 -33.2524458
2.7371477 4.4690346 -28.1881875
