# Geomagic Studio
# New Model
-5.5463669 -13.6890243 -28.6329486
-1.5723366 -14.7434457 -28.3999036
-8.6862793 -11.4007957 -29.3567983
-4.4627973 -11.9231781 -24.8796523
-1.5871051 -12.2355762 -24.1347509
2.5314526 -14.1566719 -28.3927554
-10.1529307 -8.9158979 -29.9848848
2.0063927 -11.3820070 -23.8022249
5.6854912 -12.3921747 -28.7777979
-9.4647639 -7.3592313 -26.3628398
-7.6216794 -8.9474864 -24.5267050
-3.5026875 -9.9863411 -22.2477942
4.8801365 -10.6404384 -25.0788700
-7.9829969 -6.2359248 -23.3414822
3.8557580 -8.8885847 -22.5120037
-11.3834738 -4.4644088 -31.4577233
-0.2960993 -6.7744357 -20.6345648
8.6404924 -8.5180498 -29.7575511
-10.0851689 -2.8439731 -26.9596708
7.6552520 -7.2080343 -26.0489101
-10.4589206 -1.1257437 -32.1920607
-5.1740147 -2.7881307 -21.7993688
6.4740408 -5.3776683 -23.4888814
-9.5301212 0.1215861 -28.4833391
-8.4293147 -0.4947177 -24.9363020
-3.2781691 -2.2931015 -12.7682711
9.5528329 -5.3648707 -30.8596901
8.3161792 -4.1755871 -26.5048617
-4.2290872 -1.0324674 -13.1589205
-3.6248264 -1.2281769 -10.5425563
-4.2564986 0.1426210 -8.6469096
-3.3097257 -0.9260029 -7.5876596
1.3878232 -2.0726430 -12.8390370
3.6266889 -1.4451812 -22.0062586
-7.8919987 2.7561331 -33.3041771
-3.5464757 1.3132920 -22.8676884
-4.2922302 0.7180436 -13.5035494
-1.7893881 0.1469060 -5.2870898
2.0584703 -0.6191389 -13.1773388
1.8025798 -0.4805504 -10.6208535
1.3800374 -0.8253042 -8.3059139
8.8495256 -1.1328888 -31.7868999
-6.8257957 3.1120744 -27.8962483
-4.3546818 2.0081796 -8.4401773
-3.6393199 2.1113229 -13.9238397
-4.0968941 1.7728070 -11.3821889
-3.1045778 1.7577010 -5.7208097
1.0408061 1.5453089 -22.8579030
0.5320668 0.6698540 -5.4107571
1.1617158 1.8489701 -5.7214564
1.9994211 1.3415139 -12.8808047
2.0304349 0.8002699 -7.9701307
7.5733331 -0.2013831 -27.5248958
-4.7622614 4.5646455 -33.4938206
-4.5491917 4.6248360 -29.2867620
-4.4148650 3.9897823 -26.1417758
-3.6988998 3.2271391 -9.5030661
-2.1805965 3.0404858 -14.1816134
-1.6046303 3.6223149 -12.2262409
-2.1552360 3.9051457 -6.2875059
-0.5840059 3.3902451 -13.4976591
1.0507405 2.4332854 -13.9275057
1.3793515 2.4764260 -11.9061891
1.9783707 2.4885140 -8.5414893
5.4619295 1.4676757 -25.1092161
7.2968604 1.4946273 -32.4492448
0.5328219 5.2006889 -33.6912680
0.1029572 5.3652597 -29.5183231
0.1102973 4.7500111 -26.3607682
-2.2051862 4.4028221 -9.0848372
-0.6046691 4.5782317 -9.0638250
0.2308614 3.8001927 -6.2424800
3.2785132 4.5523691 -33.2536805
2.7334182 4.4715533 -28.1912056
1.0176654 3.7567479 -8.9345910
6.0456033 2.5687452 -28.6075351
