# Geomagic Studio
# New Model
-1.5710948 -14.7440173 -28.3964693
2.5329958 -14.1557727 -28.3914274
5.6869739 -12.3906287 -28.7773201
-5.5446288 -13.6891226 -28.6323778
-1.5853690 -12.2350137 -24.1337416
-4.4608545 -11.9227508 -24.8791184
2.0078677 -11.3803842 -23.8002703
4.8808472 -10.6380757 -25.0784688
-8.6853646 -11.4006676 -29.3586538
-3.5013419 -9.9857286 -22.2473762
3.8567020 -8.8872068 -22.5097173
8.6427937 -8.5166025 -29.7542490
-7.6203132 -8.9466933 -24.5284402
7.6576627 -7.2070440 -26.0452955
-10.1536554 -8.9162327 -29.9851005
-0.2939548 -6.7731750 -20.6351094
6.4744641 -5.3771940 -23.4859525
9.5584241 -5.3648166 -30.8531880
-9.4636200 -7.3587608 -26.3638205
-7.9824860 -6.2355105 -23.3426538
8.3179749 -4.1755399 -26.5023101
-11.3845879 -4.4634999 -31.4589949
-5.1748894 -2.7876694 -21.7983707
-3.1073547 -2.4817080 -12.9342041
1.5189089 -1.9240804 -12.9415003
3.6264566 -1.4448549 -22.0051424
8.8544803 -1.1330531 -31.7839274
-10.0852164 -2.8431337 -26.9611819
-3.1494451 -1.0824051 -7.7350128
1.5009394 -0.6440131 -8.3297460
2.1031177 -0.4792165 -13.2850241
1.8827226 -0.3118668 -10.6703435
7.5795390 -0.2000602 -27.5215913
-10.4567294 -1.1269699 -32.1949336
-8.4284049 -0.4949326 -24.9374668
-4.2169247 -1.0715556 -13.0544750
-4.1613564 0.0056409 -8.6012493
-3.8157853 -0.8717737 -10.2521326
-1.9181611 0.1855228 -5.3145816
0.4353963 0.6854764 -5.4322506
1.9673509 1.4283536 -13.1264201
2.0876951 1.0026229 -8.0215393
5.4666091 1.4690563 -25.1065778
7.3020156 1.4948560 -32.4464792
-9.5302721 0.1224575 -28.4841317
-4.3121469 0.5352273 -13.6375011
-4.1224713 1.7092308 -11.2861457
-3.5483554 1.3121597 -22.8702611
1.0417380 1.5453085 -22.8560204
0.9632610 2.4654448 -14.1873855
1.3006862 2.6500607 -11.7761734
1.9309373 2.6941652 -8.4421721
6.0513329 2.5707504 -28.6055149
-3.7010721 2.0185588 -14.0436510
-4.3671164 1.9738381 -8.1415659
-3.2596307 2.1182678 -5.8441198
-2.2296720 2.9766862 -14.2964229
-0.6247823 3.1967625 -14.3882294
0.1612820 3.8475963 -6.2796648
0.9436471 2.9622117 -6.0392217
0.9204208 3.8926992 -8.8366986
3.2808673 4.5454005 -33.2559943
2.7358594 4.4701570 -28.1907806
-7.8901494 2.7560746 -33.3058910
-6.8238762 3.1116938 -27.8972077
-4.4138470 3.9910722 -26.1411102
-3.7458419 3.2846029 -9.2773732
-4.7595781 4.5635825 -33.4955831
-4.5473007 4.6265709 -29.2864317
-2.3081743 4.4289975 -8.8933874
-2.2400095 3.9780170 -6.3288684
-1.6432365 3.7567546 -11.7329968
-0.6717086 4.4690503 -9.6658253
0.5350448 5.1940432 -33.6938034
0.1049975 5.3635178 -29.5186856
0.1114330 4.7475979 -26.3620136
