# Geomagic Studio
# New Model
-5.5448215 -13.6845996 -28.6363186
-1.5715352 -14.7416037 -28.3983765
2.5322134 -14.1544348 -28.3916514
-8.6879971 -11.4005305 -29.3562522
-4.4607160 -11.9211221 -24.8797253
-1.5851876 -12.2333080 -24.1364841
2.0074399 -11.3802313 -23.8008943
5.6856000 -12.3896747 -28.7785957
-10.1564552 -8.9170901 -29.9816937
-7.6214125 -8.9469512 -24.5254076
-3.5007799 -9.9841091 -22.2490343
4.8817158 -10.6388060 -25.0769563
-9.4658131 -7.3587941 -26.3603134
3.8571980 -8.8872180 -22.5107449
-7.9833611 -6.2350685 -23.3400886
-0.2936153 -6.7727088 -20.6355880
8.6379605 -8.5181670 -29.7579803
-11.3856216 -4.4625177 -31.4567292
7.6581687 -7.2080323 -26.0455400
-10.0879294 -2.8415350 -26.9579013
-5.1750173 -2.7879142 -21.7980792
6.4758267 -5.3770145 -23.4866742
9.5548452 -5.3648421 -30.8575494
-10.4586471 -1.1256554 -32.1925489
-3.1334064 -2.4363292 -12.9165671
8.3200459 -4.1753785 -26.5012408
-9.5304086 0.1229611 -28.4831967
-8.4297224 -0.4933208 -24.9361025
-4.1980530 -1.2167996 -13.2454917
-3.5326546 -1.3578437 -10.5503497
-3.1724369 -1.0370129 -7.4727427
1.5513919 -1.8672798 -13.0250120
3.6273064 -1.4457023 -22.0042452
-4.3379965 0.4324012 -13.6448944
-3.5505219 1.3128164 -22.8703103
-4.2368111 0.0206743 -8.5421868
-1.9129005 0.0760247 -5.2939843
0.4134535 0.7774606 -5.4523813
2.1306241 -0.3587163 -13.3899830
1.8860121 -0.2387067 -10.7149749
1.4911345 -0.6211335 -8.2999502
7.5779259 -0.2015557 -27.5236816
8.8537723 -1.1333579 -31.7848789
-7.8894148 2.7553754 -33.3043587
-6.8237389 3.1120265 -27.8964932
-4.4035156 1.8697713 -8.2740709
-3.7743188 2.1419924 -13.3140680
-4.1641130 1.6424581 -11.3679213
-3.4422756 1.9467049 -5.8094549
1.0428432 1.5452780 -22.8566812
1.9030498 1.5153402 -13.0745387
2.0614798 1.0970709 -7.9684747
5.4662082 1.4675365 -25.1080290
-4.7584502 4.5607962 -33.4955820
-4.4132549 3.9893719 -26.1417194
-3.8375143 3.3754540 -8.6360211
-2.3377792 2.9507634 -14.2443034
-1.8272610 3.6748154 -11.8867433
-2.3217784 4.0370483 -6.3419437
-0.7277997 3.2179461 -14.3210144
0.8350377 2.5740906 -14.1359056
1.1979327 2.6492027 -12.0304029
0.8384494 2.8408936 -5.9935383
1.8364077 2.7410621 -8.4958725
6.0506406 2.5682686 -28.6061784
7.3013240 1.4941843 -32.4474096
-4.5469577 4.6234179 -29.2875009
-2.4569969 4.3492654 -8.9348228
0.5350818 5.1981761 -33.6919423
0.1054960 5.3645828 -29.5172884
0.1127379 4.7485749 -26.3608788
-0.8069985 4.4375507 -9.6946311
-0.9342706 4.2255137 -6.3723697
0.7724958 3.9706015 -8.8531340
3.2800891 4.5473236 -33.2556655
2.7365508 4.4706205 -28.1898196
