# Geomagic Studio
# New Model
-5.5552268 -13.6835212 -28.6359525
-1.5820024 -14.7409107 -28.4020062
2.5204474 -14.1535983 -28.4031733
-4.4691786 -11.9195842 -24.8825003
-1.5924529 -12.2336242 -24.1385544
5.6749418 -12.3909476 -28.7884669
-8.6942184 -11.3941363 -29.3577737
2.0017275 -11.3832680 -23.8059419
4.8758632 -10.6420263 -25.0830528
-3.5059375 -9.9851968 -22.2494775
-10.1614636 -8.9087412 -29.9824885
-7.6270573 -8.9426804 -24.5271115
3.8530279 -8.8912609 -22.5163821
8.6336220 -8.5219112 -29.7650481
-9.4710534 -7.3521566 -26.3602064
-7.9879577 -6.2319821 -23.3396439
-0.2937219 -6.7738161 -20.6366784
7.6509400 -7.2130008 -26.0561827
6.4714481 -5.3826682 -23.4941971
9.5506539 -5.3689882 -30.8631676
-11.3872170 -4.4551453 -31.4553700
8.3143743 -4.1807061 -26.5096238
-10.0880716 -2.8368543 -26.9570545
-5.1753236 -2.7875858 -21.7971367
-3.2326641 -2.3876783 -12.9134211
1.4411930 -1.9890215 -12.9390668
-10.4603544 -1.1182470 -32.1892890
-8.4281997 -0.4908371 -24.9351569
-4.2332374 -1.1194492 -13.2724361
-3.6019972 -1.2854226 -10.5635727
-3.2668435 -0.9738822 -7.4828134
2.0873919 -0.5144569 -13.2941099
1.4077250 -0.7270295 -8.3070049
3.6228379 -1.4408276 -22.0033015
8.8480960 -1.1374932 -31.7911717
-9.5306273 0.1289688 -28.4803039
-4.3396611 0.5544734 -13.7029874
-4.2733490 0.1255627 -8.5567811
-2.0568156 0.1047977 -5.2901961
0.3307756 0.6759011 -5.4198293
1.8350751 -0.3744548 -10.6948591
2.0424169 0.9423388 -7.9932303
7.5743694 -0.2062445 -27.5290465
-3.5478412 1.3121823 -22.8697797
-3.7024974 2.2408959 -13.3631407
-4.1282087 1.7550517 -11.4200123
-4.3869951 2.0101423 -8.3324669
-3.4868182 2.0796830 -5.8395600
1.0450439 1.5418162 -22.8580077
0.9805129 2.4560453 -14.0473019
1.9951541 1.1574295 -13.7680583
1.9399555 2.3957423 -9.2067763
5.4643287 1.4628455 -25.1126378
7.2970668 1.4926192 -32.4519264
-7.8920985 2.7622682 -33.3018767
-6.8247712 3.1179097 -27.8923540
-3.7553892 3.4845407 -8.6915129
-2.2001424 2.9984646 -14.3162039
-1.6851775 3.7010706 -11.9513459
-0.5804640 3.1929915 -14.3687143
0.8881164 2.7298167 -5.9650767
1.3274564 2.6447077 -11.4849272
6.0490611 2.5664118 -28.6086626
-4.7611282 4.5687898 -33.4914852
-4.5459445 4.6285742 -29.2834517
-4.4119434 3.9931973 -26.1375231
-2.3238613 4.4123485 -9.0040771
-2.2150497 4.1077042 -6.3603029
-0.6614119 4.4340735 -9.7400685
-0.8070504 4.2220578 -6.3766000
0.5325041 5.2002768 -33.6921541
0.1049909 5.3665432 -29.5165924
0.1131347 4.7494706 -26.3597626
0.9265549 3.8894542 -8.7718225
3.2779230 4.5497760 -33.2558672
2.7361014 4.4697333 -28.1915202
