# Geomagic Studio
# New Model
-5.5520313 -13.6885873 -28.6306729
-1.5783865 -14.7455457 -28.3950729
2.5265951 -14.1578262 -28.3921650
-1.5906424 -12.2349217 -24.1337818
5.6812321 -12.3943967 -28.7781821
-8.6925010 -11.3994171 -29.3537538
-4.4665047 -11.9217775 -24.8778112
2.0034808 -11.3819266 -23.8018028
4.8770940 -10.6407858 -25.0788061
-3.5045304 -9.9853358 -22.2463836
-10.1587721 -8.9143649 -29.9815876
-7.6246243 -8.9440663 -24.5260225
3.8528285 -8.8890083 -22.5129822
8.6394789 -8.5216785 -29.7564296
-9.4677738 -7.3558542 -26.3609267
-0.2935043 -6.7734607 -20.6341585
7.6557141 -7.2108549 -26.0472019
-7.9850353 -6.2330747 -23.3402984
6.4737806 -5.3807151 -23.4878664
9.5532035 -5.3696735 -30.8607297
-11.3843823 -4.4617375 -31.4566248
8.3172836 -4.1795638 -26.5038323
-10.0853961 -2.8404897 -26.9600436
-5.1733982 -2.7867459 -21.7985691
-3.3740908 -2.2382995 -12.9008933
1.3771733 -2.0682835 -12.8988735
-10.4573439 -1.1243289 -32.1927291
-4.2359045 -1.0921638 -13.2931503
-3.6938515 -1.1830677 -10.5266375
-3.4398078 -0.7693194 -7.4180540
2.0712018 -0.6081685 -13.2688214
1.7857620 -0.4586229 -10.5651074
1.3307314 -0.7942490 -8.1855495
3.6264448 -1.4468154 -22.0069334
8.8523170 -1.1369544 -31.7875215
-9.5292430 0.1240939 -28.4835608
-8.4273401 -0.4919114 -24.9380038
-4.2894113 0.7608633 -13.8218364
-4.2852083 0.1861845 -8.4937077
-2.4175685 0.4271656 -5.3926623
0.3263128 0.4340171 -5.3647761
2.0216023 0.8786083 -7.8547384
7.5770281 -0.2039218 -27.5250743
-3.5459269 1.3122270 -22.8718290
-3.6942869 2.2406737 -13.3773974
-4.1206895 1.9142621 -11.1879981
-4.3795140 2.1779983 -8.3392111
1.0373797 1.5465640 -22.8534141
1.0702808 2.3808937 -14.1068981
2.0377783 1.2499456 -13.0080247
6.0503380 2.5661667 -28.6091053
5.4655476 1.4653961 -25.1103702
7.3002882 1.4904319 -32.4503800
-7.8917109 2.7574830 -33.3045536
-6.8248202 3.1144082 -27.8964155
-3.7684929 3.4790954 -8.5840553
-3.2328703 2.4587094 -5.9443478
-2.1646988 3.0260796 -14.3864453
-2.6335207 3.7085079 -6.2663474
-0.5155678 3.1812548 -14.4015457
-1.5461924 3.7944170 -11.7447847
1.0086827 3.8310743 -8.6432856
1.1748158 2.6961922 -5.9617174
1.3881698 2.5331777 -11.6496196
1.9709743 2.5347228 -8.2736467
-4.7606464 4.5650739 -33.4948682
-4.5465260 4.6261063 -29.2866454
-4.4120010 3.9912998 -26.1423314
-2.2476181 4.4980553 -8.8756548
-0.5566267 4.4654997 -9.6326440
0.5351967 5.1952301 -33.6943575
0.1060630 5.3622521 -29.5208293
0.1130377 4.7480670 -26.3631534
-0.1916252 4.1585702 -6.3608298
3.2793970 4.5441270 -33.2582615
2.7366638 4.4678068 -28.1929312
